# .PCD v0.7 - Point Cloud Data file format
VERSION 0.7
FIELDS x y z
SIZE 4 4 4
TYPE F F F
COUNT 1 1 1
WIDTH 163
HEIGHT 1
VIEWPOINT 0 0 0 1 0 0 0
POINTS 163
DATA ascii
-0.91452992 0.2957435 1.7300001
-0.93514264 0.30764881 1.7390001
-0.91928756 0.30033109 1.7390001
-0.94139314 0.31557631 1.7390001
-0.93399364 0.31539309 1.7380003
-0.92843473 0.31710082 1.7390001
-0.94368005 0.32472348 1.7390002
-0.93350506 0.32556948 1.7354002
-0.92834711 0.32517698 1.7360002
-0.95404673 0.33752948 1.7390001
-0.94555837 0.3360121 1.7382503
-0.93318868 0.33527511 1.7340003
-0.92540485 0.33491555 1.7360002
-0.91589981 0.33725849 1.7390002
-0.89184612 0.33691967 1.7390001
-0.95536786 0.34708318 1.7390002
-0.94525433 0.34461954 1.7363001
-0.93430734 0.34622604 1.7378752
-0.92592645 0.34470147 1.7378752
-0.93453282 0.35216489 1.739
-0.945499 0.30801508 1.748
-0.93170726 0.30801508 1.748
-0.94703144 0.31261232 1.748
-0.9332397 0.31414476 1.748
-0.89339697 0.31720957 1.748
-0.9546935 0.32487163 1.748
-0.93017489 0.32333919 1.748
-0.92404532 0.32487166 1.7479998
-0.91607666 0.32701701 1.7479999
-0.90463471 0.32538244 1.748
-0.89492941 0.32487166 1.7479997
-0.88318086 0.32844725 1.748
-0.96082318 0.33559853 1.748
-0.95622587 0.33253369 1.748
-0.92251277 0.33253369 1.748
-0.91441292 0.33472285 1.748
-0.90565628 0.3355985 1.748
-0.89479005 0.33531988 1.7479999
-0.8838194 0.33521539 1.748
-0.87730658 0.33636475 1.748
-0.94856387 0.34785783 1.748
-0.92251277 0.3463254 1.748
-0.91546363 0.34418005 1.7479999
-0.90718865 0.34172818 1.748
-0.89492941 0.34172818 1.748
-0.88267004 0.34172818 1.748
-0.87654042 0.34172818 1.748
-0.86581355 0.34479299 1.748
-0.96082318 0.35398749 1.748
-0.95571512 0.35500908 1.748
-0.945499 0.35296583 1.748
-0.93247348 0.35398746 1.748
-0.92711002 0.35398749 1.748
-0.93188351 0.30960098 1.7570001
-0.9257223 0.30806068 1.7570001
-0.93434799 0.31514606 1.7570002
-0.9253372 0.31614727 1.7570001
-0.91417003 0.31691742 1.7570001
-0.90459812 0.31664234 1.7570001
-0.89491624 0.31781593 1.7570001
-0.88567442 0.3188428 1.7570001
-0.92264169 0.32500401 1.7570001
-0.91648048 0.32500401 1.7570001
-0.89183563 0.32500401 1.7570001
-0.88528931 0.32461894 1.7570001
-0.96422988 0.33270553 1.7570001
-0.95960897 0.33116522 1.7570001
-0.89183563 0.33116522 1.7570001
-0.88259381 0.33116522 1.7570001
-0.87720275 0.33501598 1.7570001
-0.91494018 0.34810856 1.7570001
-0.904158 0.34656826 1.7570002
-0.8928625 0.34348765 1.7570001
-0.88567442 0.34656826 1.7570001
-0.87437886 0.34348768 1.7570001
-0.86565048 0.34348765 1.7570001
-0.96268958 0.35889068 1.7570001
-0.95344776 0.35581008 1.7570001
-0.94420594 0.35889068 1.7570001
-0.93650442 0.35889068 1.7570001
-0.92610735 0.35542503 1.7570001
-0.91956109 0.35272947 1.7570001
-0.94376582 0.36417174 1.7570001
-0.93393725 0.3650519 1.7570001
-0.92880291 0.3650519 1.7570001
-0.93665695 0.30809048 1.766
-0.921175 0.30809048 1.766
-0.91498214 0.30499411 1.7659999
-0.90414488 0.30499411 1.766
-0.93510878 0.31428325 1.766
-0.92241353 0.31366396 1.766
-0.91575634 0.31196094 1.766
-0.90569305 0.31273505 1.7659999
-0.89588785 0.31634748 1.7659999
-0.88401836 0.31583145 1.7659999
-0.88247013 0.3251206 1.7659999
-0.87782562 0.32512063 1.766
-0.97071719 0.33286157 1.766
-0.88092202 0.33595797 1.7660002
-0.87472916 0.3355709 1.7659999
-0.86595613 0.33699009 1.7659999
-0.8576991 0.33905435 1.766
-0.90259671 0.34834349 1.766
-0.89640391 0.34834349 1.766
-0.86389184 0.34215072 1.766
-0.92220712 0.35660052 1.7660002
-0.91436303 0.35329771 1.766
-0.9064672 0.35298806 1.766
-0.89485574 0.35143989 1.766
-0.88711476 0.35143989 1.766
-0.96142805 0.36072904 1.766
-0.95678347 0.36227724 1.766
-0.94284976 0.36537361 1.766
-0.9459461 0.37311459 1.766
-0.93975335 0.37311459 1.7660002
-0.91186476 0.30602971 1.775
-0.90460306 0.30654845 1.775
-0.89682269 0.30602971 1.775
-0.88852358 0.30810452 1.7750001
-0.87607491 0.30654842 1.7750001
-0.90252829 0.31277275 1.7750001
-0.8953703 0.31401762 1.775
-0.8846333 0.31510687 1.7750001
-0.87607491 0.31775221 1.775
-0.8651824 0.31899709 1.7750001
-0.87607497 0.32522142 1.7749999
-0.86518222 0.32522145 1.7749997
-0.85584581 0.32833359 1.7750001
-0.84557563 0.32708871 1.775
-0.8387289 0.32833359 1.7750001
-0.87607497 0.33144575 1.7750001
-0.86504084 0.33427498 1.7749997
-0.85473436 0.33366871 1.7749999
-0.84417522 0.3322238 1.7750001
-0.83717287 0.33144575 1.7750001
-0.92275739 0.35945526 1.7750001
-0.91808915 0.35945526 1.7750001
-0.90408444 0.35634312 1.7750001
-0.92431349 0.36256742 1.7750001
-0.94765472 0.37345999 1.7750001
-0.90554053 0.30653876 1.784
-0.89615673 0.30810276 1.784
-0.88364494 0.30810276 1.784
-0.89615673 0.31123069 1.784
-0.88208103 0.31435865 1.784
-0.87269711 0.31748658 1.784
-0.86487722 0.31540129 1.784
-0.86174929 0.32530645 1.784
-0.85653609 0.32530645 1.784
-0.84610957 0.32426381 1.784
-0.8398537 0.32530645 1.784
-0.98061126 0.33312631 1.784
-0.92430824 0.36544845 1.784
-0.8917436 0.30982977 1.794
-0.87496763 0.31507227 1.794
-0.8644827 0.31647027 1.794
-0.85714328 0.31926623 1.794
-0.86238575 0.32346019 1.794
-0.85399783 0.32241169 1.794
-0.84377503 0.32319805 1.794
-0.83827043 0.32555717 1.794
-0.84247577 0.32402915 1.8030001
-0.83931452 0.32560977 1.8030001
